ply
format ascii 1.0
comment Created by Open3D
element vertex 1024
property double x
property double y
property double z
end_header
4.51775 -3.95815 -0.645708
3.79765 9.1862 -0.112206
3.10389 -5.14103 -1.03007
-5.54498 -0.833791 -1.79546
8.52505 -7.99967 0.190553
-23.0241 2.49607 -0.105065
4.53055 2.07193 -1.63514
5.49563 3.47641 -0.976066
-1.50432 -10.0519 -0.543862
-4.1828 5.98894 -1.68181
-14.5513 -4.28588 -1.86971
-32.6015 -45.7161 -0.959418
-18.13 -16.2139 -2.19443
21.2611 -16.3967 -0.825171
-11.3493 11.1798 -1.81489
8.82704 4.88757 -0.186135
-2.69635 12.5378 -1.66511
5.26603 4.70969 0.449158
-13.214 -13.5284 -2.2274
-28.942 -26.3625 -0.339216
-9.91044 -4.26585 -1.99275
4.77812 10.2333 -0.435148
-7.89468 5.06068 -1.85519
-7.31807 -5.82891 -1.90578
-2.93919 -4.77695 -1.86513
-8.47904 4.37353 -1.88819
1.70043 8.98163 -1.64454
2.63785 8.83781 -1.58094
-31.8965 -46.0422 1.07589
9.50631 2.60169 -0.177247
2.96199 -8.55364 -1.11666
-5.79261 25.8652 0.622613
-2.50068 -6.53521 -1.44032
-0.531878 6.33645 -1.65458
2.85124 5.64874 -1.53112
-0.40887 5.82392 -1.67884
10.7073 -2.19259 -1.60854
-3.23048 -2.8001 -1.87816
3.06518 -3.10331 -1.80592
1.83075 3.9637 -1.64939
0.417112 -4.1979 -1.69316
9.03506 15.2733 -0.256682
-17.9564 -1.87252 -0.277213
-2.40425 4.91033 -1.66918
2.24601 -4.78855 -1.44011
2.26672 9.67166 -1.6375
2.59526 37.2834 0.788896
7.12116 -3.66225 -1.725
21.2113 -0.498943 -0.0919193
3.74003 -1.53602 -1.75858
-11.6428 11.4963 -1.1866
4.53454 32.4173 -1.42983
-23.88 2.78977 1.02851
-4.93983 7.66261 -1.72676
-0.918726 4.57538 -1.69108
7.80443 11.6306 -0.419503
2.63813 9.1958 -0.564812
-11.0787 13.0208 -1.67533
1.83666 4.21019 -1.63331
6.39163 -6.62024 -1.64781
2.33024 3.25862 -1.67672
5.77214 45.5158 0.365642
-7.67043 5.82536 -1.82199
5.21084 -6.0424 -1.50393
15.9171 1.95151 -1.27425
-7.42035 7.14922 -1.8436
5.02001 2.41036 -1.60914
-8.29241 -0.102978 -1.91235
-66.7987 21.1377 0.140911
-18.3622 -3.0185 -0.290424
-0.752361 -7.99634 -1.66365
4.08427 2.14745 -1.64211
2.82135 2.86597 -1.6839
-4.41604 4.06397 -1.69944
10.6781 4.0352 0.522729
0.936138 5.8517 -1.71341
-4.72722 3.53718 -1.72549
4.79062 -3.38138 -0.856959
16.1913 -8.26812 -1.69283
-36.4746 -46.5356 -1.32493
-8.19878 0.732525 -1.88918
-4.10305 8.67665 -1.71783
-24.6454 -18.3409 0.306632
1.23864 -5.63041 -0.573666
3.42133 2.4734 -1.67403
13.3598 -4.2602 -1.59102
-9.05642 18.4765 -0.31841
-12.1391 -6.2229 -1.32831
-5.2647 -4.57938 -1.86082
-1.44032 -4.04213 -1.74423
-12.2387 10.9906 -1.79648
0.533863 -4.78994 -1.07794
4.24063 -2.18271 -1.73337
9.71115 3.17003 -1.29726
-3.89985 8.70225 -1.70593
-42.7659 10.5125 1.23379
-15.7983 2.8507 -2.04134
2.14698 4.50722 -1.5873
-5.74366 26.2629 1.12974
-5.82728 10.8531 -1.22806
-0.523016 -7.49297 -0.94985
-11.3665 12.0554 -1.40654
3.91926 -6.46436 -0.632613
-1.37181 4.61592 -1.69384
-27.7319 11.3307 -2.51926
-3.33824 9.22623 -1.67503
9.76055 4.47519 -0.337217
14.1343 -2.99772 -1.57238
4.85778 3.91747 -0.986943
6.87596 0.764368 -1.61111
1.83359 -4.65201 -1.22612
2.60729 12.2979 -1.57965
0.779719 -4.20604 -1.11219
-26.3808 7.07249 -2.11699
-36.2085 16.8963 -2.70644
-20.152 -6.85338 -0.24719
-12.1426 -6.19878 -1.49133
7.62171 0.29041 -1.64405
0.299308 5.84174 -1.68615
6.84907 4.40052 0.393947
42.3537 -11.5702 0.14048
6.88059 1.89648 -1.59219
5.49176 3.06789 -1.52311
-3.8243 -6.096 -1.0957
0.512004 4.49545 -1.70475
-20.1047 -16.676 0.475197
4.05758 33.5197 -1.0872
15.8216 -4.13528 -0.6161
-9.82996 7.76462 -1.95906
15.7682 33.2286 -0.967648
5.65494 -2.91593 -1.71619
8.65263 -8.22981 0.614634
4.52342 -3.56023 -1.30887
-7.14174 -6.10914 -1.91356
4.73228 3.01932 -1.55607
12.7534 -5.49184 -1.66962
-6.34369 10.789 -0.7088
-0.240016 8.51404 -1.61888
-17.1028 -0.0605226 -1.03742
7.07966 -2.76502 -1.6943
2.18826 -4.77615 -1.18211
-3.07675 4.816 -1.68086
-1.57855 3.99845 -1.67297
4.60185 -1.38672 -1.69966
-4.43192 -2.25281 -1.81992
4.0795 -2.23405 -1.74435
-27.7589 -34.6674 1.44141
7.54243 -3.27268 -1.70315
-7.45365 -9.3933 -2.01295
-5.57577 -3.12907 -1.81779
5.17071 4.47562 -0.678876
2.23597 -8.08364 0.0332225
7.59791 -7.82514 0.458566
-2.857 -6.96668 -1.84618
-16.4744 1.50507 -0.310774
5.16399 18.6422 -1.45827
4.96237 -3.99378 -0.263732
6.32512 9.99209 -1.31565
5.38045 0.731214 -1.6811
2.14824 3.25512 -1.71468
18.1254 -7.03745 -1.5823
4.79663 -3.29089 -1.06299
-3.91806 -2.9845 -1.84628
-1.11244 -5.0248 -1.73082
14.7461 -3.12166 -1.56235
-0.216235 -5.14095 -1.68177
-9.07309 18.2863 0.779529
-16.8756 1.23363 -0.735741
5.18968 3.7196 -0.551008
7.45731 1.3995 -1.57017
-31.3823 -43.9318 1.70801
9.70541 4.46816 -0.658215
5.12493 -6.029 -0.860923
-6.37955 -5.82085 -1.89848
4.1047 33.4642 -1.08524
7.90335 0.936701 -0.965129
-0.789794 19.5352 -1.58736
0.261593 6.40043 -1.67092
-5.76091 0.200581 -1.77867
5.49647 4.47887 0.195086
5.23825 -3.12814 -1.22909
-18.7268 -4.61044 -1.47529
2.16853 9.66587 -1.63246
-2.79216 6.94254 -1.6562
-0.340748 13.6272 -1.53786
-0.537351 7.06242 -1.6433
-0.53172 6.14845 -1.66266
-18.2501 0.43498 -0.365564
0.41106 -6.02153 -0.0964511
5.20843 -3.31936 -1.60101
-3.81701 4.31633 -1.68866
-3.77466 7.30481 -1.69053
4.22269 3.68368 -1.51291
-3.25698 9.68087 -1.6749
20.8457 47.2768 -0.192386
2.51871 -8.23605 -0.533743
-12.2966 -16.3952 -2.20172
1.44993 7.93202 -1.67383
-13.4104 -7.89418 -1.72571
-10.2261 -3.66437 -2.00832
-6.38227 0.269049 -1.79733
-1.08542 4.08698 -1.69019
27.0983 -9.68326 -1.42075
-8.05748 -25.6451 -1.94807
-19.2843 -0.161259 -0.868439
-2.15018 8.23244 -1.61104
6.73211 -1.11728 -1.65277
-7.03992 -18.5662 -1.99886
5.51856 -3.23597 -1.60706
14.3025 -1.82954 0.427347
-0.387275 -7.52491 -1.48984
-10.2509 4.11031 -1.97742
-14.9497 -9.34616 -1.22237
-4.39759 -6.16118 -1.94879
-12.3455 -6.42405 -1.00726
5.05081 -0.998486 -1.68178
4.84889 -0.533594 -1.67589
-1.8672 -8.37566 -1.71853
8.41614 1.24317 -1.52416
-5.76692 2.91252 -1.75323
-26.1751 -66.5501 1.86281
4.9088 -2.72751 -1.73021
15.4597 -3.09544 -1.54737
-6.46536 -5.21933 -1.89385
6.06568 -8.36409 -0.122063
-7.64462 21.8454 0.571081
2.85159 -8.47872 -0.840677
0.428924 -6.03786 -0.467446
-4.2833 2.05837 -1.73537
5.52346 -9.65724 -0.286475
-7.30185 10.963 -1.1592
1.2799 -5.89391 -0.649565
9.08722 3.38555 -0.93824
5.75732 6.3115 0.338443
-0.666913 5.78275 -1.67273
-10.3762 -31.7874 0.167215
0.630278 -5.97086 -0.311484
-1.11473 12.1585 -1.57805
-3.09423 -5.98587 -1.33062
-16.4229 -23.4659 -2.42931
3.89057 5.72494 -1.48635
-5.13806 3.32301 -1.72837
4.09783 7.04716 -1.458
0.742112 -4.28671 -1.00416
0.485291 4.29014 -1.70282
0.0581845 8.52345 -1.62101
-6.0785 -17.3324 -1.94726
-12.8714 9.6038 0.758313
-65.511 20.7617 0.46509
6.52496 -7.64097 0.486595
3.8446 -2.2481 -1.74733
-15.4802 -12.0099 -1.37695
-10.9064 12.9019 0.270528
8.20509 5.12071 -0.345066
-2.96145 -5.93135 -1.54563
5.80871 -6.30462 -0.890879
-17.4398 -1.45539 0.25666
4.52493 -3.86775 -0.871745
-7.99285 -2.92769 -1.88391
-15.5314 -6.76086 0.259688
3.01449 3.74199 -1.57572
-11.6746 -2.57123 -1.14679
5.21482 2.36404 -1.58815
5.76332 0.95504 -1.68913
1.06998 -4.06482 0.324724
2.9531 11.9365 -1.59692
-1.37896 -9.87431 0.242072
8.87661 14.8098 -1.18379
-4.62009 5.06784 -1.70993
6.01918 -3.67977 -0.23093
-34.5157 20.2101 -2.51387
5.74554 1.33212 -1.63615
-6.68508 -0.735557 -1.81406
2.15771 7.02579 -1.58143
5.73313 -1.96006 -1.67451
5.01081 4.63222 -0.962825
-3.83455 4.76611 -1.66747
-8.08123 3.44545 -1.87182
6.65231 4.3692 0.478959
-32.7631 -37.4346 -0.829499
3.56453 4.61546 -1.5206
1.25428 8.22143 -1.66064
3.18449 -3.14468 -1.79691
-1.82634 7.73511 -1.6374
3.75558 -2.4061 -1.75026
-18.7817 14.5276 0.0354577
1.98674 -4.68397 -1.34413
5.83257 3.29234 -0.661109
-7.83843 21.7689 1.00216
10.2354 1.82164 -0.259216
0.496955 -6.03272 -0.890452
1.42714 6.07576 -1.62951
4.13055 6.166 -1.47428
-3.39647 3.16275 -1.70534
-3.70675 2.51161 -1.71445
-15.8959 -11.6745 -1.02229
-6.80263 11.5063 -0.301276
4.20366 6.08401 -1.46932
-14.2662 5.85622 -2.13258
-9.88055 -9.35706 -2.04863
-4.41928 -2.30039 -1.82289
28.8155 61.8618 2.53015
5.24009 -8.50956 -0.651916
-0.272641 -7.22102 -0.771959
-5.57939 -3.15413 -1.82178
8.24339 -0.69269 -0.815871
0.317923 -6.14171 -0.551399
9.28084 2.39513 -0.223238
-9.11328 11.7637 -1.3349
-11.4133 -1.6087 -1.59747
23.6173 49.5511 -0.554468
2.91013 -3.90908 -1.71656
2.31623 3.45823 -1.64866
-2.55511 3.69399 -1.70258
5.42452 6.75653 -0.597383
2.8494 -3.14613 -1.75387
-25.5142 -20.4089 0.958544
11.9486 1.76112 -0.910219
6.95293 -10.1783 -0.410412
-22.2628 -12.5094 0.287888
4.84746 -3.26978 -0.949006
0.917192 -4.29443 -1.68517
-2.46664 3.85591 -1.69356
-1.67485 3.63868 -1.72406
-14.7928 3.35965 -2.09256
-5.41567 4.78696 -1.72761
5.60161 3.7269 -0.505042
3.57477 -8.84189 -1.0796
-2.10022 17.797 -1.33039
9.05338 4.77889 0.490841
-2.32857 3.38577 -1.71982
-17.4987 0.0991493 -1.10876
-17.402 -1.42406 0.25565
3.45675 7.96268 -0.817522
10.1625 17.9159 0.0458644
6.79735 4.42671 -0.110045
6.13543 5.56607 -0.116782
7.37214 -1.25636 -1.66774
1.9292 9.00556 -1.65862
-6.12306 -2.82843 -1.80821
-18.0563 11.6562 -2.1551
-10.7746 14.4167 0.627027
-11.093 12.0612 0.466311
-2.29154 -4.29241 -1.86023
9.34203 3.19208 -0.0022491
5.11715 0.566851 -1.68808
12.4008 1.31756 -0.277177
-6.86104 -22.788 -0.407119
-5.93852 10.6668 -1.34707
-3.64562 3.68109 -1.7
-13.5495 -19.3696 -2.2676
-40.2805 18.8834 -2.82047
-1.07873 -4.70119 -1.71694
7.43194 -0.123021 -1.24898
-5.54838 11.6132 -1.21393
17.1722 -3.47124 -0.25129
-4.95213 -11.7712 0.341569
-1.06745 -8.6782 -1.66839
-8.61681 -0.681532 -1.92299
-9.59462 16.7781 0.749254
14.1195 -3.36956 -1.58028
-5.94699 3.44616 -1.7629
-16.7911 0.909045 -0.527974
-12.022 10.8122 -0.892664
-4.11887 12.4487 -1.70439
3.4467 -8.71976 -0.43764
20.8641 -2.09148 0.273377
-12.2279 -18.049 -2.21893
-13.0596 9.22441 -2.03674
-0.427523 -4.62027 -1.69196
-4.94305 2.11232 -1.75301
-10.8443 -2.13038 -1.65878
16.6063 -4.29145 -0.456071
8.91544 -8.28562 0.037633
0.297045 -4.00568 -1.74923
8.70445 4.89249 0.307873
0.403844 -7.40045 0.323087
-10.0536 1.22036 -2.00801
4.09403 3.82221 -1.51187
-1.74658 -3.7686 -1.79437
2.77957 -4.37604 -1.72635
4.88257 3.00932 -1.55008
2.74902 8.29573 -0.550176
-3.59923 15.2639 -0.867592
3.68688 8.71991 -0.160333
-31.7451 -34.9666 1.51852
3.65226 13.8302 -1.55548
25.2172 -8.98007 -1.44991
4.58211 1.31413 -1.69714
-0.947491 28.6957 -1.06176
3.64674 9.19432 -0.111156
-19.7913 4.31302 -1.88463
-5.77653 -2.58914 -1.80223
-0.116046 39.4379 0.620988
-12.5635 -0.524525 -1.52593
3.63899 2.44834 -1.66005
4.62993 0.16241 -1.69103
3.80883 -3.71019 -1.73174
-0.297913 -4.07891 -1.74618
5.23018 1.32513 -1.67215
11.9608 1.7349 -0.630216
-17.3777 -1.22533 -0.0475133
0.674328 4.91804 -1.71066
-2.82949 4.32085 -1.70419
5.7243 1.72323 -1.61817
-4.80943 28.3358 -0.183956
9.4359 2.09484 -0.933227
2.13352 -4.76277 -0.939112
4.38015 -6.42301 -0.703681
16.4922 0.729805 -0.0261072
2.56566 5.17247 -1.5602
2.14932 5.10531 -1.5991
-13.1186 -0.292088 -1.92347
3.22329 9.41436 -1.55394
-19.8954 -25.1281 -2.55332
-7.44253 4.93337 -1.83248
50.7134 -16.4348 1.42568
3.22981 13.3486 -1.5555
-1.90885 -5.27728 -1.74677
-0.730202 -7.05852 -1.65102
-5.00209 8.44185 -1.75643
-0.665196 -8.03382 -0.0506391
-8.33506 11.4345 -0.999453
3.58766 6.72008 -0.776973
-10.0894 -3.92839 -2.00107
5.68356 -1.11537 -1.66775
-7.11341 -4.59845 -1.86644
-3.07358 -7.1196 -0.937139
-2.85996 -13.2682 -0.961648
1.46458 -7.23174 0.460951
9.58813 1.98498 -0.948222
-4.84838 2.49156 -1.73888
7.485 -7.81595 0.0565731
-8.03878 11.2721 -1.14368
0.269128 -7.38207 0.0530857
-19.6858 -16.7264 0.924361
3.71824 2.10109 -1.6561
0.46217 -6.01834 -0.828455
-2.14036 3.9059 -1.69271
0.190456 4.42242 -1.70865
11.1766 24.7111 -0.837154
32.226 -18.9957 -0.573876
-2.67404 4.45494 -1.67522
-5.67651 -5.53115 -1.88243
-22.0214 8.2994 -1.93355
7.41626 -0.0332764 -1.31099
-14.153 -4.35711 -2.09749
2.51189 8.36719 -0.601068
-0.361984 16.7811 -1.54463
-7.30765 5.60854 -1.82227
5.77693 7.3755 -0.268285
-5.0296 -8.66166 -0.913776
-14.3054 -21.1809 -2.30992
1.44599 -4.56037 -1.01612
7.97301 1.30571 -1.53616
5.73552 -9.56797 -0.287535
-0.61909 4.88031 -1.68511
1.08267 6.6493 -1.70717
3.76479 5.61421 -1.50436
-0.898594 4.70066 -1.68704
-1.15435 7.36451 -1.65588
-7.32055 7.92801 -1.84435
-9.42394 -9.69335 -2.03332
-11.971 11.4592 0.191561
-18.4537 -3.8552 0.262223
1.53861 -3.91744 -1.73939
10.234 18.0814 0.526899
10.1318 -2.20672 -1.62053
-5.34499 -11.6992 0.0294877
8.75589 -0.29945 -0.185948
-1.37766 4.00662 -1.69007
-20.1677 -6.84831 -0.753201
8.56704 1.7109 -1.4922
9.60632 2.19355 0.127767
5.13081 -9.45002 -0.331519
3.01756 -5.24108 -1.66502
-3.54477 -14.9468 0.636981
10.164 47.9037 -0.166293
-20.0864 1.17325 0.892759
3.23372 -4.16983 -1.71749
4.59145 -4.69583 -1.70842
3.78956 -6.57411 -0.764553
8.62997 0.937685 -1.48113
-16.8795 -0.324829 -1.43269
-3.19571 -3.51849 -1.87878
-25.9872 -21.6245 -1.70992
-17.3887 -1.12057 -0.481611
13.3186 -8.70885 0.451475
-12.6602 14.2878 -0.515975
-13.2218 0.696875 -1.94281
-5.42127 -1.62031 -1.80678
-17.281 -0.920751 0.682262
-0.41535 8.49697 -1.6168
-4.94646 2.54355 -1.72181
-5.73677 -1.79493 -1.78679
16.2045 -3.40076 -1.1253
-2.32854 -11.8892 0.114833
-5.368 -2.99919 -1.8208
-3.15055 -5.04538 -1.86804
-2.94426 3.71046 -1.69336
-2.58302 3.93084 -1.68547
-1.33785 -9.66536 -0.995009
6.43883 1.44495 -1.60017
-4.84973 -17.4103 -1.03612
-13.0622 -4.82409 -1.52967
-5.84552 -4.71095 -1.85993
3.48978 3.34312 -1.58589
-7.0283 -4.81857 -1.87627
-6.83478 10.8951 -1.28949
-6.04691 -0.312836 -1.81014
-19.3352 4.30726 -0.896852
-3.80128 4.78582 -1.66648
12.3326 -9.877 0.450982
-2.89346 -6.67672 -1.8613
1.39752 3.79125 -1.77632
4.696 -1.44617 -1.68464
13.0752 0.782264 0.406886
-3.00728 -6.92399 -1.85121
-0.486703 -4.22047 -1.71512
-4.48145 9.56299 -1.73329
1.1728 4.90201 -1.69285
7.31108 4.1393 -0.735116
5.97271 2.41947 -1.56217
3.17539 -2.7045 -1.81209
2.10689 -6.37548 -0.495451
-0.950552 -4.25495 -1.72511
12.2419 1.89316 -1.17523
-28.6666 17.9431 -1.67989
5.87912 -1.25045 -1.66172
2.45237 8.99934 -0.772816
3.708 -8.8398 -1.48262
-2.27283 13.5491 -1.64394
3.36657 8.03922 -0.548468
2.85291 -8.33849 -0.499734
7.72577 -8.00712 0.515628
0.933568 -5.88058 0.161459
-1.81462 4.07366 -1.69982
-3.77099 2.99209 -1.71222
-1.76124 21.4116 -0.615166
-4.31873 -3.2748 -1.86425
3.44712 -3.1581 -1.79793
3.26825 5.62846 -1.51224
3.61886 -2.64248 -1.75816
-16.1417 -7.05325 0.261643
13.3011 -0.0231858 0.342004
-17.8541 3.68031 -0.807902
6.21621 8.34589 -0.260106
-18.3273 13.222 -0.500311
3.50771 2.34363 -1.67206
3.24615 -2.87344 -1.79503
-5.3611 13.277 -0.505403
-25.436 3.54848 -1.06331
-4.68489 -6.19139 -1.91684
-5.85501 12.2968 -1.7145
-23.9294 2.89974 0.584598
3.14208 5.72317 -1.51717
1.71719 -5.43478 -0.115791
0.166351 -5.63314 -0.91259
0.635785 -5.0462 -1.65585
0.850811 -5.69589 -0.218608
7.35991 -8.71515 -0.708051
-8.80243 11.6447 -1.40111
0.177167 -5.64728 -0.965585
22.9765 -17.0018 -1.06106
3.61448 2.04268 -1.6841
66.3349 -28.6171 0.101951
-19.2887 -0.172986 -0.187444
-12.8935 7.73154 -2.07545
7.19627 -8.50084 -0.0821217
21.2621 -0.866842 0.531144
2.79268 -3.1922 -1.75285
1.98645 3.41105 -1.6946
-5.44424 -4.29509 -1.85104
-0.459859 -4.87787 -1.68486
0.40552 -5.98348 -0.133466
5.15006 -8.62342 -0.532859
-4.51804 8.58607 -1.73664
4.97214 2.70034 -1.56811
4.78604 4.79866 -1.13276
-9.56338 1.17988 -1.98027
47.2435 -15.5109 0.132489
-18.2367 -3.13389 -0.957272
-17.3559 -1.09859 -1.01362
11.6223 2.03934 -1.39424
0.166764 -7.24283 0.233036
3.63662 6.76728 -0.364971
-2.47896 4.4575 -1.68532
-1.59127 36.6013 1.46261
-11.6589 -1.48273 -1.49368
5.17657 3.78199 -0.896997
-16.5366 1.9006 -1.71952
-0.800104 27.1165 -1.46444
-1.00681 -4.2271 -1.72013
-1.09752 29.1912 0.663508
-0.576069 -4.63832 -1.70596
-30.8117 -33.0491 -0.735209
-20.1297 -16.4425 0.292055
-3.4297 -2.35361 -1.87748
11.8201 -9.57993 0.185906
-4.01299 -7.58088 -0.537077
-7.15958 -5.35826 -1.893
-4.30249 -8.12056 -0.97889
-3.88188 -6.26259 -1.80964
0.616218 -5.98993 -0.885476
4.65807 -3.3924 -1.20394
-9.09702 -2.7793 -1.9525
0.784359 -4.83844 -1.43894
-8.0557 20.8998 0.288948
-6.37034 1.87721 -1.80143
3.61219 2.05678 -1.68609
5.64374 45.6966 0.149767
-15.0091 -0.465187 -1.95911
0.894584 4.63072 -1.72485
5.48358 1.92581 -1.61217
5.65843 5.6326 -0.1047
-6.12717 4.61859 -1.7623
-6.20802 3.58589 -1.7837
5.35424 -9.31064 0.125401
-0.576736 4.27582 -1.69136
9.27089 2.89391 -0.399248
5.18246 -9.49026 -0.0175076
-12.903 9.31978 0.653214
-6.12942 -6.11451 -1.90125
-2.63914 -5.76613 -1.85165
-4.59308 3.68976 -1.7225
-4.01891 -3.32274 -1.84012
10.1298 3.90429 -0.343257
5.44249 3.4613 -1.07206
-5.20858 27.5079 -0.512066
7.3897 -8.73415 -0.0310459
5.67306 3.39395 -0.819088
-3.84132 16.253 -1.64109
2.02157 5.53823 -1.59391
-3.65014 7.72755 -1.69444
1.82018 3.69911 -1.67047
-24.8919 3.24317 0.472254
4.63475 3.49004 -1.51299
-29.9044 -26.0449 -0.826695
-17.8837 0.336607 0.271201
-0.71225 8.46333 -1.61267
2.64639 -4.96069 -1.02109
-4.32024 2.31884 -1.73823
-5.78852 4.06876 -1.76071
-16.0085 12.2076 -1.75196
5.32348 3.53768 -0.957045
4.20027 -9.05046 0.131417
3.17527 2.84931 -1.65595
14.512 -11.0787 0.488284
-7.33765 -9.52308 -2.01786
12.1145 -2.30441 -1.60153
2.15184 3.49183 -1.66262
-4.81726 3.03896 -1.71965
-5.44546 13.5077 -0.348269
5.26481 0.365123 -1.67806
2.38112 -3.59552 -1.72563
-6.08901 -7.52215 -1.96753
0.689869 -4.15744 -1.6902
5.64372 5.20365 -0.0927911
-3.77654 -2.049 -1.8518
8.26262 -7.8998 0.0485363
0.827292 -4.6348 -1.60603
-29.2646 -46.5332 -2.89233
5.02934 -1.83214 -1.69553
4.80861 3.58872 -1.51499
3.27305 -3.04633 -1.79496
-2.25062 -7.46924 -1.75091
60.2501 -24.5927 -0.301121
-8.86744 18.823 0.428616
-8.7002 10.2231 -1.74071
0.198829 -6.50757 -0.904251
-12.583 -2.15993 -0.691533
5.55166 4.43164 0.450072
-11.2459 -3.05619 -1.31322
-11.9796 -1.6902 -1.00865
-11.1034 -32.1701 0.9963
-5.79135 13.0389 -1.71026
0.897742 -6.51342 0.198711
-5.14372 3.02748 -1.74149
10.3017 2.27918 0.189756
-10.9477 0.880247 -1.96278
-1.06913 29.3388 0.172552
-3.82565 14.7966 -1.66565
-0.669932 13.7312 -1.55266
-15.6496 -16.9814 -2.36629
-2.33895 22.6552 -0.514399
18.7323 -2.73956 0.398524
8.0091 1.19481 -1.54015
-4.31171 2.08888 -1.75134
-7.09989 5.28677 -1.81651
-5.19657 -11.7619 0.190534
6.50221 4.65882 -0.0529866
-0.194699 -4.62518 -1.68597
2.72528 8.17466 -1.24421
1.81523 4.5777 -1.65418
2.73921 11.9638 -1.59283
8.67369 5.02528 0.436889
1.31306 -4.27723 -1.16722
0.358404 8.53271 -1.62514
5.59537 6.47485 -0.126488
-22.808 -14.1059 0.165706
-11.526 12.1521 0.676584
-19.8087 8.25003 -2.28068
-3.15776 -7.06803 -0.935171
-0.0886104 6.18364 -1.66885
7.30572 2.74688 -1.4822
-7.30277 1.60517 -1.85912
20.7136 -1.66515 -0.596708
58.2491 -27.1295 1.98075
9.86546 -1.35297 -1.25473
1.8624 3.45372 -1.72556
-0.250037 5.81979 -1.67591
-3.95333 6.14368 -1.68288
-8.29441 7.84484 -1.87485
-3.87507 -4.54541 -1.88344
1.72342 7.37992 -1.63314
-5.25313 -11.6681 -0.586513
-2.62599 3.64855 -1.70356
4.75282 0.405504 -1.69406
8.13996 14.8286 -1.25258
4.44302 -3.96316 -1.0897
-1.09338 -5.63625 -1.71758
-12.4312 -12.5989 -2.19666
4.89674 -1.83618 -1.70652
-20.7856 -9.17007 0.980221
67.0733 -25.149 0.438856
7.23734 0.201688 -2.79903
-35.3469 -30.4131 1.27901
-1.96357 -3.62946 -1.83046
7.87247 -8.06978 -0.0283606
2.5355 4.25122 -1.57448
0.642237 -4.62406 -1.41901
5.46817 6.53592 -0.850449
3.80837 33.5951 -0.867061
4.73572 4.72524 -1.06677
0.294385 5.28259 -1.67936
5.5117 7.4803 -1.3542
-2.0023 8.24966 -1.60811
6.6122 2.42652 -1.57119
15.8542 32.8726 -0.958795
-6.0422 25.6165 0.17865
1.92024 4.14446 -1.62436
-4.23308 -2.02314 -1.827
-0.103015 -7.25113 -0.909952
9.61819 1.98198 -1.43622
-36.0407 17.2354 -2.70637
-6.52921 1.31372 -1.80565
2.05807 12.039 -1.58353
-4.52551 3.97329 -1.70441
12.6012 1.44558 -0.582191
2.45746 -4.90381 -1.45909
-5.91693 13.3646 -0.863065
2.27128 -3.4698 -1.75667
-0.267549 -7.20491 -0.325966
6.38061 10.0744 -0.677633
4.88602 -9.38969 -0.199517
-4.66101 -6.76636 -1.94756
4.72647 -4.28419 -1.7186
-22.3008 9.94775 -2.31765
4.16853 1.30412 -1.69314
5.70106 -3.26515 -1.03506
-5.65082 -7.99046 -1.9882
0.391254 -4.37867 -1.69009
5.60229 3.4131 -1.22808
-0.497371 -3.99032 -1.76021
-15.7781 -14.267 -2.29777
-14.8236 3.46365 -2.10049
1.65719 -6.30623 -0.794435
-5.20647 -1.28214 -1.81795
0.402255 -6.01765 -0.678452
4.54022 -3.67987 -1.22182
9.40688 2.92715 -0.355251
24.4412 -15.336 0.302237
1.52858 -4.41339 0.200815
-1.53698 5.80081 -1.65029
4.8742 1.44615 -1.71115
-0.731059 -8.17291 0.0944151
-2.67755 -4.80802 -1.87207
-11.3278 12.7428 -0.2263
-3.1245 -13.7488 0.355529
4.83312 -7.49251 -0.78229
9.22459 3.29489 -0.824245
6.11668 0.711988 -1.6671
-20.1664 14.6563 0.789251
3.84696 4.31497 -1.50672
8.58003 2.32469 -1.45523
-2.03643 11.8361 -1.63372
0.206439 6.02081 -1.66704
0.577307 -6.06941 -0.509442
-4.04101 15.45 -0.298288
11.3497 -9.57626 0.256941
6.7771 -0.656482 -1.64987
-12.4253 3.39882 -2.12469
-14.7808 -4.08763 -1.41997
5.92104 -2.75789 -1.70226
-3.71157 4.84174 -1.66351
-11.8685 -5.36009 -1.57679
0.337407 -5.33806 -1.15471
-24.7879 -18.5745 0.918721
-0.818961 10.1121 -1.57899
8.43821 2.93226 -1.38423
-1.49412 -4.04824 -1.75523
6.93026 11.5713 -1.29731
0.983388 -6.08223 -0.174466
9.23509 -1.15641 -0.941775
-4.76671 -2.28212 -1.82604
-4.44665 -11.802 -1.73436
-0.276974 -4.29716 -1.69609
-1.04395 5.15672 -1.65979
-6.40513 9.82374 -0.30813
-10.4711 -10.6843 -2.1051
-6.42948 -21.5779 0.286429
-4.66745 10.8061 -1.72972
-6.26692 6.4776 -1.78349
-1.62621 4.92316 -1.68159
-18.7628 -3.20726 -0.301448
10.5196 4.03727 -0.298266
-0.871352 13.8167 -1.56453
-22.2507 7.87276 -1.51164
-0.74086 4.04971 -1.70137
5.59188 2.69641 -1.57014
-9.31307 -8.51312 -2.01692
-13.3256 -8.57309 -1.95325
-2.10318 -11.2912 0.474606
3.9785 -5.54329 -1.332
46.8264 -28.8214 2.07484
-0.153215 9.04909 -1.62271
-18.5448 -3.84862 0.729177
7.50009 1.89946 -1.5402
11.3189 66.696 2.51735
-17.2124 0.432248 -1.88406
-9.49067 6.8792 -1.9256
-10.6309 14.7105 0.401057
2.0223 14.4965 -1.50958
-5.93501 -4.5532 -1.85405
7.63761 0.543489 -0.781082
5.21133 -3.30713 -0.440017
6.14977 -0.193635 -1.66297
-2.02625 -5.26028 -1.75579
6.03928 3.39216 -1.48711
2.60128 6.12936 -1.54789
-6.49366 3.67376 -1.78152
-5.36934 3.0273 -1.74038
9.41021 3.19307 0.190749
-16.1549 -6.36241 0.177146
-3.1883 15.9233 -1.09255
-8.43609 -8.15298 -1.97085
-28.0247 -34.2567 -2.52986
-9.50795 7.85419 -1.92719
-1.69804 5.73937 -1.64424
-11.3604 -2.32502 -1.17985
-9.09637 -7.34582 -1.9665
6.56794 5.33962 -0.741879
0.541908 -7.56901 0.198146
9.81661 4.49125 0.189781
12.5985 1.23287 0.186832
-11.5397 -14.367 -2.16252
10.8505 1.62913 -1.4062
-7.31916 -0.648602 -1.83942
-3.97783 -2.59525 -1.84253
-1.54776 -3.82014 -1.77733
-19.4023 -5.90096 0.766415
-12.5942 -5.77687 -2.0978
3.36158 -3.06051 -1.78396
-2.85724 -8.66716 -1.75148
-1.97921 -4.64948 -1.75503
7.71665 0.543488 -0.932082
-19.0736 0.784752 -0.391958
1.00857 5.62119 -1.70752
-13.2115 11.2685 -0.65184
-5.67459 11.2342 -0.869002
0.451766 -6.05218 -0.684441
-12.9796 10.7814 -1.93316
-12.8784 11.0346 -0.0201121
-7.89474 11.1978 -1.21279
-19.3532 0.904002 -0.526753
8.27307 5.07539 0.305924
5.42153 0.484125 -1.68507
9.35281 2.0908 -0.681226
-8.69786 11.5807 -1.3882
3.82023 2.68989 -1.61304
-9.49745 2.79169 -1.96143
-7.0821 4.24719 -1.81996
10.0755 -2.58061 -1.62543
-21.4423 -10.7843 -1.29094
-0.843231 -8.52418 -1.63145
-7.85877 -0.508539 -1.89579
-13.3857 1.95228 -1.988
-3.40722 9.2371 -1.68099
-7.29552 -0.825494 -1.83726
-14.6442 2.75081 -2.05095
-49.0282 13.4714 -1.71965
-5.29109 -3.74091 -1.83831
2.52219 -3.28996 -1.75577
4.96202 5.29896 -0.42567
-17.842 -1.95728 0.614913
3.23113 17.7727 -1.45484
-13.2705 -1.29875 -2.02457
-6.94632 10.8527 -1.05044
21.3672 -0.48584 -0.242922
10.2597 -1.48804 -1.38871
-4.62773 13.0335 -1.05889
0.207243 -4.21075 -1.69415
-2.3176 4.07893 -1.68455
-12.0699 10.6849 -1.46069
-9.93133 -1.78307 -1.98365
2.88132 5.92742 -1.53204
9.13515 2.83449 -0.741245
1.66899 -4.5639 -1.23114
1.56466 -4.28793 -1.28024
2.49472 3.06027 -1.6968
-8.16816 20.7754 0.832963
0.619627 -4.68577 -1.15499
8.5739 4.96593 -0.11411
-10.4427 -7.29795 -2.04199
15.8946 -4.04764 -0.810125
-15.5644 -14.8552 -2.32638
2.235 -4.79247 -1.35011
8.50818 5.00008 0.127898
-11.779 11.3636 -0.792581
5.95055 4.7086 -0.134923
8.66299 4.91066 -0.298122
5.10659 4.51268 -0.427861
-1.74141 -5.15698 -1.7408
5.2742 -0.11095 -1.67598
1.16341 -4.06755 0.221715
-5.75174 9.50548 -1.73061
2.69482 -5.02607 -1.13807
-8.63179 -0.278104 -1.92235
-7.68555 3.44877 -1.85701
5.91102 -8.93915 -0.267811
4.95306 2.25526 -1.62714
-22.0245 8.23118 -2.37658
-3.61044 7.70722 -1.68647
13.466 2.34257 0.415728
5.80228 3.91009 -0.403034
-0.0678901 4.67176 -1.70044
-3.21435 20.8288 -0.334658
-3.72949 4.11057 -1.68378
4.42014 -4.32382 -1.19455
-6.66954 -7.43159 -1.93972
-63.2272 20.8898 -1.48698
0.404488 5.27667 -1.68041
-11.7429 11.0835 0.58429
1.79787 -3.77759 -1.72748
5.16049 4.54601 -0.970861
-3.00454 13.7426 -1.68749
-1.77736 4.97981 -1.66249
6.93187 43.4961 -1.19263
5.93292 -8.57111 0.315036
11.3726 -9.43157 0.434883
5.16328 4.49873 -0.680871
-2.00742 -4.05125 -1.76629
-4.92646 13.1824 -0.582675
4.03195 -1.70023 -1.71754
14.0165 -4.05571 -1.58909
-29.3362 8.49402 -1.30382
0.543271 -6.07196 -0.213439
26.7785 -11.5258 -1.44117
-21.657 1.90492 0.81194
-2.69239 4.02794 -1.68937
9.03654 19.1769 -1.25439
4.51021 -3.75423 -1.27579
12.7337 -4.69025 -1.62687
-4.60744 -7.97952 -0.983003
-11.9323 -1.42582 -1.67386
-5.96838 -0.699589 -1.79377
4.26612 2.86517 -1.59105
3.5338 -8.81734 -0.157609
-0.773196 -8.25222 0.439446
9.14599 1.92254 -1.45321
-2.81141 10.8875 -1.64968
3.59221 29.5344 -1.46952
-18.337 -49.8032 -1.16122
-2.17686 3.56183 -1.70583
4.3336 -9.26989 -1.17351
-11.7828 -1.97786 -2.02832
4.20362 -3.52179 -1.79086
-4.35507 3.31249 -1.69878
-16.4294 0.00401344 -1.9847
-11.652 7.128 -2.01436
-11.5364 11.8269 0.383465
25.5019 -8.00417 -1.4482
-4.60402 -2.95771 -1.84154
-28.8912 18.5967 -2.1305
6.31568 -8.24244 0.192862
0.240555 -4.51014 -1.69503
-0.334288 -7.18201 -0.154973
0.598172 -6.08169 -0.689439
40.7176 -16.9063 -1.20192
-18.6099 -19.3677 -1.77888
4.05803 -4.39055 -1.71649
-12.5851 10.4281 0.58849
2.10616 37.5643 0.161227
4.65615 -1.60442 -1.68859
-16.4149 4.81601 -2.19002
-3.72936 2.17966 -1.74159
-7.41331 6.08321 -1.81502
0.127104 28.9386 -0.900176
5.35571 -2.11827 -1.71445
-11.772 6.92512 -2.01338
1.41381 -5.5698 -0.635707
4.36201 -3.56619 -1.78585
12.2256 -3.80179 -1.61113
4.52251 -4.44156 -1.45351
5.95526 53.7518 1.71271
-4.73479 -4.15938 -1.85889
0.259086 4.78916 -1.70054
-24.7446 -18.5187 0.160702
-16.9464 -0.117979 -1.18031
-0.111413 14.818 -1.52851
7.6225 -0.495105 -1.64591
8.60284 -7.88238 -0.3785
-5.407 18.878 0.414746
-4.30908 13.5651 -1.09686
3.01906 13.9162 -1.54621
0.156066 23.3477 -1.51034
5.29227 -9.53294 -0.338502
2.64016 -5.00686 -1.40407
2.55601 -8.2022 -0.22376
-11.209 12.5502 -1.02044
5.23077 -4.01742 -1.78175
-18.3279 11.5473 -2.174
5.11293 4.23345 -1.36191
-22.3338 8.45813 -2.11532
