ply
format ascii 1.0
comment Created by Open3D
element vertex 1024
property double x
property double y
property double z
end_header
-4.77609 7.58568 -1.77321
10.7527 15.8268 -1.10488
0.592048 -4.54187 -1.60849
1.37307 -5.7804 -0.374618
-4.95972 1.76333 -1.7598
9.1521 -3.98917 -1.64155
-25.9614 -18.6518 1.32974
4.57895 -1.79202 -1.68434
5.69422 5.20723 -0.704418
-5.13539 -4.39818 -1.86021
2.17263 3.39745 -1.73182
-16.9663 0.109248 0.261183
-0.12758 -4.30478 -1.69019
-13.2738 -8.10885 -2.00459
5.45452 -8.47178 0.133866
2.92942 19.7507 -1.49528
-14.1568 -3.87062 -0.809084
6.05772 -4.59303 -0.13045
0.761287 -6.09649 -0.212762
-9.9295 14.3116 -0.441544
0.290826 -6.25214 -0.102203
8.47118 -3.57095 -1.64973
4.47699 -3.5392 -1.75792
9.11172 1.82585 -1.44383
3.47313 8.04634 -0.822406
-18.2981 -1.75612 0.182439
-3.01023 8.47531 -1.70125
-17.2206 7.44848 -2.29514
7.26103 8.53465 -0.0828314
9.5708 4.31531 -0.572837
4.70197 -4.1162 -0.92045
0.66085 -6.14289 -0.624628
-11.712 -1.64967 -1.04767
-8.40324 -0.594818 -1.93693
-16.7534 0.829446 0.667442
-20.8493 2.81622 0.425257
-2.13807 -6.24412 -1.72637
-0.289373 -6.30775 -1.63968
15.9205 1.08729 -1.26599
-1.72476 -7.45683 -1.70522
-49.8768 17.0382 -0.857555
-14.5481 3.11297 -2.04882
-4.43467 2.24428 -1.76202
2.58089 3.01903 -1.74737
23.3508 -16.4922 -0.186836
2.30859 3.46708 -1.68881
-22.2545 -12.3751 1.09994
8.48071 -0.426775 -1.61796
-33.9538 -44.1875 0.457511
-4.64001 -4.75333 -1.86988
-6.49198 4.51289 -1.81674
-9.11157 -10.0908 -2.02881
-1.54297 4.4239 -1.68821
-11.0467 -1.14825 -1.23975
7.33393 4.23593 -0.380572
4.98901 4.695 -1.46765
-10.7022 -7.23066 -2.0575
10.0395 2.76657 -1.20658
-16.9475 -0.040935 -0.541572
-13.1092 -4.08439 -1.8207
7.60219 -8.51824 -0.0861533
-12.3405 -28.7163 -2.26652
-15.4329 3.56752 -1.53079
-10.4355 -12.7101 -2.11773
1.2763 -4.2038 0.255559
7.7916 3.35413 -1.30816
-19.0167 -4.62708 -0.776478
-1.00039 17.2604 -1.36622
-14.5288 -3.52517 -2.10877
-3.6353 2.9909 -1.72704
1.39438 -6.11535 0.0487689
4.12658 -9.30752 -0.850361
4.40461 -2.02691 -1.71216
0.989475 -5.79772 -0.2233
-16.5054 1.78825 -0.42443
-25.4822 -17.6666 -0.00490978
-3.74385 6.85703 -1.72476
10.624 4.05271 -1.19808
-4.23876 -3.8922 -1.86423
-11.556 -4.1422 -2.06967
-18.1692 0.510821 -1.34417
-8.31145 2.75015 -1.93339
4.88516 -6.6858 -0.359825
5.37087 -9.28545 0.0638394
12.5573 3.05758 0.564416
13.3263 -3.38563 -1.55722
1.75796 6.52469 -1.71105
5.51869 -10.05 -0.0843707
8.02835 -0.857555 -1.15588
-1.75284 3.69886 -1.71798
8.24622 0.380343 -0.815009
5.43293 3.69351 -0.811596
-0.779849 -5.05886 -1.71277
-5.91466 -7.80402 -1.97925
-11.7754 -26.9402 -1.92704
-9.29463 15.6888 -0.244159
-5.51333 -1.23827 -1.80151
1.79543 5.75313 -1.66997
9.98583 -2.37443 -1.60246
-6.28914 9.57455 -1.77877
9.04794 -4.71537 -1.67904
4.83871 0.498624 -1.675
6.25184 6.19717 -1.0887
-10.9905 11.5159 -1.33373
5.29868 -3.55077 -1.46416
-2.89629 -6.22397 -1.02889
-0.554569 -7.4974 -0.944054
-14.4957 1.58626 -2.00608
-19.2119 1.99994 0.86131
3.56647 -9.03514 -1.49931
-1.45352 7.91327 -1.65405
-32.2332 -30.4957 0.402075
7.11278 -10.8897 0.65667
6.58533 7.15816 -1.17891
-15.9578 -10.6599 -1.91998
5.98287 4.40973 0.37983
4.60646 9.00278 -0.113005
15.7929 -5.02169 -1.52663
8.99543 -0.0686045 -1.538
-4.72116 3.69035 -1.75159
20.3164 35.3888 1.16534
3.07641 -3.0509 -1.79188
6.10419 -8.58639 0.503642
-11.9065 10.4902 0.386214
4.79561 -0.939649 -1.67778
-1.57624 9.08266 -1.64355
-20.2999 2.53204 0.901585
-9.52271 -7.13193 -1.99093
-8.89518 16.0378 0.289031
2.60721 -3.65331 -1.71799
0.611961 35.78 -0.899385
2.83196 -8.69105 -0.957206
-2.68476 -6.00939 -1.45528
4.31212 8.26683 -0.205656
-16.6429 0.250668 -1.51692
3.4592 2.27265 -1.78123
-27.3226 19.2299 -1.43005
-0.942338 5.08636 -1.67883
-14.7794 0.0316712 -0.445602
0.428118 -7.57255 0.204267
-18.3523 1.5728 -0.921728
8.47823 -3.38654 -1.63784
-21.8249 -28.0407 -2.60832
2.17399 -4.8751 -1.31429
-10.3304 -11.8946 -2.09287
-15.1435 -3.16294 -1.4235
-3.83055 2.99537 -1.72896
-20.5372 -7.45441 0.725071
0.280107 -6.31199 -0.931124
4.68114 15.0148 -1.53214
4.01877 -6.26771 -0.87882
4.82343 45.4552 0.952858
-2.24805 -4.05359 -1.85094
-10.6722 -1.40355 -1.47319
2.57422 4.53318 -1.61181
5.84142 -1.97136 -1.66137
-5.8729 -3.58694 -1.83327
4.75905 -4.04179 -0.751543
5.42046 4.53457 -1.13192
4.71814 -4.04475 -0.746525
-6.39063 6.69942 -1.83055
-5.70233 3.97226 -1.78383
-4.72046 11.9092 -0.721856
-8.05415 -8.0081 -1.97609
-17.091 -0.367986 -0.772698
-3.93078 7.10275 -1.73134
6.81908 8.40125 -0.592776
4.95722 -2.48743 -1.70793
1.51138 -6.29162 -1.06011
4.1716 7.7324 -0.71317
1.11036 -4.48785 -0.896971
-3.43528 -3.01636 -1.84475
-15.0195 13.3407 -0.541386
-0.701216 -4.27188 -1.70477
5.98694 -0.0999095 -1.65899
5.97678 1.51147 -1.60983
4.41083 -2.40173 -1.72089
-1.81674 -4.9278 -1.76816
0.0314091 9.81829 -1.60489
-12.7378 -4.67431 -0.888603
-24.1831 -22.548 -0.618956
-7.40212 -21.8633 -0.792013
10.2812 3.94664 -0.3501
5.86756 4.17864 -0.419324
-12.293 -30.997 -2.21177
14.9586 -3.51869 -1.50224
0.293142 6.65604 -1.67886
-21.8783 9.87977 -1.82886
21.7275 -3.69398 -0.902403
3.34361 4.74255 -1.56696
-9.93343 14.2185 -1.16066
-1.20464 -6.77976 -1.66441
4.69307 -4.09214 -1.07247
9.70397 1.89417 0.128177
0.548384 4.19501 -1.70496
-14.4479 -3.56393 -1.82069
-3.61875 -5.77574 -1.13601
5.97664 -0.175598 -1.65598
4.79867 -4.13987 -1.70546
3.84936 -3.42388 -1.76482
-27.6396 21.2422 -0.0268656
-2.63669 -12.1754 0.263072
-3.3587 -13.5555 -1.41776
-8.11333 -3.8787 -1.90144
5.61938 -1.26137 -1.65669
-5.77509 5.17883 -1.78198
0.395554 -5.95105 -1.59765
-17.4802 7.20425 -2.31452
-3.30633 -2.65282 -1.85831
-11.3146 0.0985896 -1.93277
16.1724 -4.63955 -0.74584
5.38674 -3.97558 -1.74381
-1.3952 -9.47453 -0.15306
6.5489 -8.679 -0.537485
11.3796 -10.1865 0.0920408
-1.67146 6.65662 -1.64841
16.9641 69.2189 0.500905
-5.25879 -17.0296 -1.00128
5.78617 5.32579 -0.377341
9.54053 -4.71955 -1.66412
3.69146 2.89672 -1.61882
-2.20257 9.12708 -1.67504
-0.185787 -4.05307 -1.72644
-3.86721 -14.7896 0.748073
-1.66239 17.5232 -1.28939
3.18181 -3.09728 -1.78088
2.49698 3.39936 -1.66996
3.28831 -2.65498 -1.79436
-7.53438 -3.98089 -1.87234
1.94172 -5.20476 -0.891731
-14.4361 -3.49548 -1.26583
-1.36596 -4.2672 -1.73627
-10.9289 -2.10502 -1.2397
9.89002 2.03238 -0.303794
6.07239 3.0796 -0.674118
1.41582 -4.40647 -1.2093
-0.295417 -7.1223 0.325298
14.5836 -2.99206 0.547581
5.64905 -0.00504622 -1.686
-6.50495 11.4774 -0.834213
-9.01481 7.83924 -1.96081
4.3057 -4.87346 -1.68751
-9.34936 2.73872 -2.00626
7.41786 4.05167 -0.220707
4.76476 -4.13322 -0.644456
-5.58374 -12.0577 0.678913
3.79233 3.39163 -1.57343
7.41868 11.7964 -1.34049
5.59895 0.800287 -1.69098
9.55341 1.82068 -0.755837
5.88373 9.44382 -1.42423
5.76096 3.45223 -1.06983
-21.5005 14.7189 -2.31796
-39.0122 -45.6404 -1.28437
5.42566 -0.161484 -1.67698
-11.8521 10.6377 0.588406
13.0538 0.846209 0.340004
-3.22071 14.1615 -0.776218
16.3878 -4.11635 -0.546075
2.30921 4.75254 -1.63442
-34.7461 23.7551 0.678423
-25.8212 16.2473 -2.55821
1.25474 5.07451 -1.7134
-10.4587 12.5813 -1.77654
-2.50896 29.4714 -0.172455
-10.4286 13.8986 0.817198
1.30295 -5.7097 -0.328649
4.2931 -2.33826 -1.72691
0.146287 -7.38832 0.059268
0.402187 9.47462 -1.61658
-6.04288 1.55958 -1.82005
5.295 8.27625 -1.43318
-18.9053 15.4658 0.482262
8.19489 -0.985692 -1.47185
3.3237 4.77962 -1.57292
5.40997 0.362327 -1.67701
-0.258515 4.79348 -1.69367
-10.8116 11.9535 -0.767211
2.77732 -8.55557 0.0256721
-0.540404 -4.03224 -1.73518
-23.5932 -22.2367 0.989406
-2.56187 -6.24807 -1.49507
4.70982 2.2244 -1.61144
4.46981 8.73971 -1.52722
5.70718 -3.91546 -1.74695
12.6843 -9.84136 0.756302
-13.4643 -9.45827 -2.20341
16.4304 -7.6856 -1.57617
3.71515 -5.00736 -1.67307
-6.3947 0.886757 -1.82143
0.779545 8.00451 -1.66061
0.207431 -6.44541 -0.306906
10.1544 4.0745 -0.0800257
7.22293 8.44975 -0.8889
14.1549 -2.13099 0.425331
-8.39516 -9.62547 -2.02474
-8.90907 16.0172 -0.152987
1.08201 -5.64702 0.271447
-3.84897 3.71357 -1.71289
1.74136 4.23966 -1.73267
5.11722 -3.48917 -1.24816
4.11953 5.01772 -1.50702
-9.52107 11.6704 -1.80024
-43.9779 -57.6897 -1.22011
-4.38235 2.7642 -1.73716
-11.3964 0.190243 -1.92984
7.45796 1.52342 -1.57586
-4.32314 5.41117 -1.72631
0.0746803 4.53133 -1.70022
8.85836 -1.19145 -1.60381
3.60056 -4.01728 -1.7021
-16.9439 -0.197009 0.66906
-6.08008 -0.454588 -1.81818
7.26071 9.87295 -0.999462
-11.845 -2.86011 -2.05815
-42.6015 11.0913 -0.113112
10.187 2.95694 -0.397517
-10.0783 13.1269 -0.909011
-7.9078 -0.769989 -1.90652
8.44955 -0.95038 -1.61986
9.73606 1.53728 -0.768899
-12.4746 11.7488 -1.03174
-8.64506 8.58681 -1.89689
2.38073 3.57364 -1.66473
-3.2677 -9.23857 -1.764
5.00058 -8.94644 -0.61033
-14.9998 0.230167 -1.96612
3.06633 2.79056 -1.68174
-1.44976 4.88961 -1.69071
-4.86594 2.3834 -1.76968
8.09007 0.129136 -0.698006
2.20466 7.526 -1.69019
0.435882 4.40904 -1.70863
21.6205 -12.9401 -1.52431
7.42094 -1.74533 -1.63959
5.93862 4.20847 0.457684
-2.85571 -6.42496 -0.986668
5.663 0.192764 -1.69201
4.28207 -3.10846 -1.76626
0.452805 -6.08224 -0.314535
5.21042 0.865923 -1.68196
-7.589 -5.53056 -1.90485
-14.9883 -8.51061 -1.59464
5.00751 -3.48802 -1.12013
-0.498499 -4.28982 -1.69891
-19.3059 -4.87556 -0.307972
-5.05863 3.94947 -1.74508
-15.7471 14.1773 -0.0638776
5.55965 4.85047 -1.18669
5.50998 -3.70399 -1.72908
5.75579 5.2688 -0.999382
3.82118 29.4338 -0.714442
12.4634 -10.5318 0.378002
-10.5925 12.5604 -0.699496
-11.9593 10.3704 0.385061
-5.83489 2.22328 -1.82279
-7.11496 6.69982 -1.84823
5.68616 7.67378 -1.39101
-8.70092 16.3319 0.513275
9.66473 2.76644 -0.539561
-6.15176 -7.57906 -1.97444
-3.85274 5.99134 -1.7048
1.22871 -5.74298 -0.261552
7.95677 -8.34545 -0.158484
-5.51977 -2.20811 -1.82066
-5.42164 -0.122941 -1.78592
-1.69748 15.917 -1.65228
-4.24102 4.14821 -1.7361
-10.611 10.7387 -1.90499
-7.19174 7.87043 -1.90756
2.63661 4.91141 -1.60743
-7.17202 -9.15439 -2.0209
4.4721 -1.28275 -1.69061
2.28069 4.46777 -1.64472
2.31475 -3.43568 -1.75307
9.56984 2.53155 -0.593638
-44.9031 14.5706 -1.85503
0.333223 17.4037 -1.59608
-23.2913 14.3779 -2.44595
-12.0771 9.99814 0.753561
-4.4024 3.37548 -1.72218
8.76744 11.5941 -0.254379
-10.887 9.78857 -2.01022
-6.99961 -4.3857 -1.87777
5.99047 0.156424 -1.66101
-10.2192 2.90265 -2.01681
1.32285 -5.71588 -0.329657
0.425401 -6.037 -0.385568
3.39777 4.0953 -1.58764
5.20845 1.71025 -1.63773
-3.34871 -13.4127 -0.0659409
2.07325 9.70652 -1.62854
5.51294 -2.62652 -1.68592
-4.21572 5.50472 -1.72924
3.19567 -3.86472 -1.71307
7.21157 2.04484 -1.5497
2.91219 11.9682 -1.59147
10.9852 3.63626 -0.0962945
9.91537 0.869593 -1.45599
-19.4982 -5.54361 -0.21064
3.23353 -5.3802 -1.02438
1.94344 3.93502 -1.70112
-4.06937 -6.09904 -1.17636
-2.56817 -10.1212 -1.71643
-30.7049 18.8999 -1.78951
4.98753 -3.52021 -1.1211
8.64073 -8.41686 0.487315
-10.3815 -3.62744 -2.0247
5.91938 -3.38608 -1.72044
-8.10975 3.85848 -1.9164
-17.5106 15.8761 -0.0946981
-32.0755 -31.5283 -0.91351
5.02275 -9.74542 0.32658
-4.45451 2.45591 -1.75565
-0.365703 -4.11967 -1.71722
5.28575 -9.89773 -0.421405
5.51432 4.84706 -0.56668
-25.2667 -17.1741 0.55027
-9.67589 12.8704 -1.74557
-11.5268 11.2418 -1.55387
-16.0415 -8.10876 -1.23516
-6.31265 -0.00293052 -1.80822
6.58488 -0.34814 -1.66796
-4.72589 -2.46284 -1.83431
5.28053 2.25464 -1.59149
-8.70216 -2.767 -1.93842
-3.84249 1.89502 -1.76876
-2.6983 -4.81392 -1.87073
-14.1565 -0.00109625 -1.43574
4.01865 -9.28287 -0.910319
0.422428 4.91206 -1.69302
-0.517248 6.15423 -1.65886
-1.09648 7.94446 -1.64928
9.42517 4.40984 -0.196766
-0.255782 -6.55922 -1.6514
3.53343 2.50116 -1.68008
2.66961 3.04931 -1.69637
-8.50264 -7.34758 -1.95589
-5.08451 -17.1376 -0.880268
5.53072 -9.00713 0.572429
5.00417 0.78018 -1.70097
0.671619 -4.10161 -1.71809
-9.18443 -0.863833 -1.96834
1.70947 -5.69 -0.26698
-3.38767 -4.51775 -1.87674
5.8615 1.27646 -1.62289
-2.45054 11.375 -1.70315
-16.8956 0.921728 -1.13934
5.15021 -1.77279 -1.67741
-5.09367 14.3672 -1.7236
0.72699 -6.12559 -0.6237
-2.80805 -6.03151 -1.10218
-10.6757 -2.79468 -2.0353
16.1612 -4.80178 -0.544765
2.9466 2.89799 -1.67561
3.4262 -8.94398 -1.38232
-3.79449 3.04441 -1.7299
6.45786 8.53013 -1.36348
17.6632 -4.33125 -1.36005
-3.45584 -10.2171 -1.7787
4.56906 4.1476 -1.49101
8.21832 0.0958497 -1.563
0.748248 4.15273 -1.70214
-3.51717 -11.3819 -1.75326
-17.9681 1.38823 0.816826
0.176408 -7.45752 0.204327
-5.41854 23.4471 -0.267404
-13.134 -16.0426 -2.20811
8.62132 17.8705 -0.298412
-10.8125 -10.49 -2.10463
7.25632 4.03029 0.195305
1.81414 -8.18583 0.446935
-7.79009 3.69244 -1.90276
-0.407917 -7.45622 -0.798218
-23.6737 13.5031 -2.43527
-7.39816 -3.52337 -1.86614
2.52157 -5.05545 -1.44831
-39.7523 -47.4089 -1.32967
5.53393 3.6133 -1.35368
-17.2135 -0.70036 -0.668929
4.96736 3.38558 -1.51673
-25.9959 -18.4623 0.566448
-14.7772 4.19844 -2.12162
0.127328 -5.60897 -1.66384
-2.84491 -5.968 -1.29523
-0.91231 4.2207 -1.68589
0.732496 -5.99827 -0.309857
-2.71434 -5.92761 -1.38636
0.536686 -6.16486 -0.0265025
-2.2879 -4.15498 -1.85479
6.63035 3.99277 0.0983856
-10.6714 10.7323 -1.91097
-8.15918 4.57554 -1.92116
-2.27358 -11.2605 -0.984284
-10.3028 -6.27598 -2.0241
12.235 -9.83673 0.744433
-10.9509 10.2991 -1.96346
-2.77574 -12.288 -0.339694
1.16052 -5.85938 -0.230359
-1.10159 -8.82765 -0.830052
22.8869 -17.5595 -0.188787
-4.10195 -13.7225 -1.81204
6.57619 -6.94013 -1.38235
4.86425 -1.46021 -1.69656
0.938378 -5.72623 -0.256346
-9.0524 -3.20225 -1.96158
-4.9635 -3.57834 -1.86448
-4.68986 13.5885 -0.835831
-51.4654 32.423 -2.06969
1.20525 7.98476 -1.66895
4.7828 -9.69511 0.198672
-4.66414 2.69303 -1.7602
-16.1095 -8.2483 -0.907915
-1.07968 -5.03928 -1.72757
-3.78729 -5.76051 -1.35894
2.16982 4.8771 -1.65121
5.52674 4.76383 -0.922756
5.48071 1.18875 -1.6769
-1.30184 -9.2499 -0.935399
41.076 -14.4861 0.874101
3.50835 -5.33968 -1.65458
-8.70277 6.29242 -1.91925
4.6161 1.44511 -1.66879
5.27867 2.43905 -1.57139
4.45733 0.823659 -1.71196
10.0031 -5.5122 -1.68163
50.9901 -23.7043 -0.964614
0.460098 -5.81695 -0.900859
-4.05876 -14.9916 -1.50355
-6.38546 6.22181 -1.82923
2.69479 4.10236 -1.60833
8.51135 -1.1309 -1.05482
1.54691 3.83085 -1.72602
-1.30657 17.3092 -1.37192
-53.2461 35.1511 2.43318
9.67124 13.3808 -0.132939
6.03701 4.16328 0.459627
5.57561 1.65474 -1.61276
7.57387 -8.29671 -0.756372
-10.5312 12.1685 -0.681057
3.43577 2.13266 -1.78033
-13.1591 -8.07763 -2.05866
3.47292 -3.40928 -1.76568
-16.9071 0.247448 -0.343146
9.99534 14.0795 0.693641
-6.32666 1.17761 -1.81581
5.50804 1.09391 -1.67892
-7.62245 -3.11697 -1.87884
-0.953427 17.1491 -1.46538
5.03362 -2.96589 -1.73758
-1.478 -4.12913 -1.73735
1.96287 4.43717 -1.67358
-15.5238 -15.1093 -2.31846
4.05995 -1.23239 -1.70461
-16.763 0.804467 -0.822618
35.8532 -9.99457 -0.0846639
-6.067 11.1811 -1.72386
-3.81341 4.92182 -1.69623
-18.3303 1.76223 -1.93031
0.572025 -5.14417 -1.02075
11.0772 3.33786 0.18958
10.6732 1.50888 0.316085
4.93758 -7.38555 -0.988072
4.20253 -4.0546 -1.73332
3.82203 3.04571 -1.60273
4.8708 1.97545 -1.62759
8.04447 -0.881731 -0.746875
6.3734 1.03731 -1.63395
6.54024 8.82838 -1.35521
4.05252 10.8739 -0.645531
-1.87096 -3.90965 -1.76335
-1.62332 4.92678 -1.67854
12.5012 -9.83618 0.575351
8.89477 4.59688 0.0664169
-3.56749 5.51622 -1.69058
-1.16935 17.1032 -1.46127
22.844 -17.4049 -0.704912
-13.4895 -13.3444 -2.21466
-5.87914 1.06829 -1.80109
4.93043 -6.78155 -0.772743
10.0957 4.30544 -0.8789
-16.1906 -5.96199 0.193016
-4.61098 -5.08324 -1.88444
-0.743768 34.1821 1.18878
-5.36488 11.2279 -0.402258
5.90273 3.79125 -0.40262
4.15734 -2.68868 -1.74859
2.64592 -8.48464 -0.129319
9.49259 13.1029 0.379855
-3.13441 6.03964 -1.70017
5.60606 0.792214 -1.69298
1.72349 -4.75085 -1.03612
-11.53 -31.233 0.761034
3.09488 -3.30813 -1.73662
-4.27623 -4.54597 -1.89331
-5.11437 10.9014 -1.18683
-3.33412 4.08599 -1.6926
-3.26127 4.9624 -1.68547
12.5551 -4.44903 -1.59366
5.0024 -3.58257 -1.05905
-1.87486 5.92707 -1.66315
41.6535 -14.4401 -0.137971
-4.02538 -2.83933 -1.84184
-5.99644 -5.94763 -1.91272
-19.2885 -14.9678 -2.02454
-5.48195 -5.86117 -1.89603
-10.9207 11.0215 0.38255
11.069 3.56672 -0.0983288
-23.5372 13.8718 -2.4417
-8.11715 17.47 -0.037698
4.93424 -1.48844 -1.68155
-4.17566 19.213 0.0765705
-5.95931 -3.3705 -1.82561
6.03873 5.36294 0.395613
-10.558 13.6828 0.403984
8.69338 1.01492 -1.49397
-2.42391 4.06163 -1.69512
8.06893 -1.6777 -1.64264
3.16899 -2.6931 -1.80628
0.510145 5.26302 -1.67567
-2.673 -4.43268 -1.85922
0.496535 -6.09948 -0.095549
5.98894 -9.0565 -1.12177
-5.87759 -4.72292 -1.85952
8.40617 2.98234 -1.3814
-9.74736 14.7615 0.828932
-17.5881 14.165 -2.11817
3.61468 3.00027 -1.62071
-11.3113 -1.94064 -1.15805
2.40371 12.3429 -1.57067
9.84427 3.3462 -1.20534
3.5834 -5.59254 -1.45734
-18.1286 1.45763 0.821997
4.12996 -9.46607 -1.18018
-4.51865 2.04608 -1.75636
4.45565 8.47496 -0.159507
2.71271 -3.37158 -1.73136
-16.1872 17.1659 -0.945474
1.61698 7.59531 -1.6707
-17.5758 13.1665 -2.19668
5.07053 -8.74908 -0.295598
-9.2171 5.7601 -1.94293
-0.998257 7.63781 -1.64672
-8.78208 3.66741 -1.9566
5.85564 -9.49725 -0.0201999
-15.8225 14.3948 0.300467
5.11942 -3.125 -1.72447
-20.4482 -6.59362 -0.868567
10.5749 1.40505 -0.0739298
1.31158 -7.07502 0.0629842
0.789359 -4.9736 -1.27913
0.0970181 12.2933 -1.58299
-33.7406 16.5468 -2.76762
6.24344 3.06972 -1.11215
41.776 -14.5809 1.22009
-5.55505 10.3509 -1.71423
-2.74732 15.396 -1.3131
5.5255 4.77807 -1.22874
0.673957 -6.04842 -0.0947507
-0.700038 22.239 -1.55651
-9.7799 14.6974 -0.230132
-10.4986 12.3878 -1.16578
-23.7654 -14.0901 0.0150227
-1.19546 6.71886 -1.64068
-3.75085 -5.21276 -1.87666
-0.400644 -7.35895 0.291662
10.8047 3.54255 -0.234322
3.75197 -5.618 -1.11241
1.92947 28.4811 -1.03412
3.39352 3.08653 -1.63258
8.68403 11.4308 0.434491
6.09688 3.19165 -1.35805
17.8711 -5.20827 -1.50669
-10.7512 -5.75057 -2.0489
3.30744 -8.90319 -1.46229
-11.3798 1.22186 -1.95519
6.62954 2.53583 -1.52447
-5.96231 0.559474 -1.8052
-43.5295 9.2621 0.678336
-12.4015 -14.9825 -2.17184
-4.04648 2.09299 -1.74037
-28.6171 19.7098 -0.481872
4.02271 1.91705 -1.68554
-6.99241 -8.51233 -2.00783
-8.48886 -7.35896 -1.95488
3.05051 -3.08202 -1.79384
-4.66014 -6.26497 -1.91786
-0.232611 9.065 -1.61859
0.909277 -6.59044 0.441715
11.5709 44.5323 -0.113324
1.4302 -5.85422 -0.645573
-10.3016 12.5928 -1.1686
-4.63175 -5.07374 -1.88645
5.61259 0.911281 -1.70096
5.13431 -9.81432 -1.08441
3.81572 5.32599 -1.52058
4.61796 -9.55407 -1.14539
2.04312 4.79427 -1.65822
1.15965 -5.57851 -0.491696
-2.45105 -3.94826 -1.85895
-42.4014 11.4945 0.901656
11.0435 3.50916 0.384649
-8.5431 7.48078 -1.93952
66.6928 -28.079 0.444122
-10.7475 13.2766 -0.317456
-6.38395 0.905164 -1.81939
-4.11332 -7.99091 -0.450975
8.6496 2.06691 -1.45475
-0.984287 19.6852 -0.887333
2.60212 30.0231 -0.183802
-20.2477 -6.10619 -0.463516
-1.94283 4.11975 -1.68833
5.73419 -3.88126 -1.74799
-10.5084 -13.9654 -2.14303
-19.5538 12.5046 -2.33506
1.00323 -5.7299 -0.290392
-1.80712 -4.2723 -1.75795
6.78719 7.55729 -1.1706
-13.3 -3.36957 -2.0711
-11.0563 -2.59787 -1.81069
3.21081 -2.89024 -1.7871
7.68131 3.50009 -0.941074
-5.59747 7.70381 -1.80159
-13.4938 12.33 -2.00848
-12.3218 -2.07395 -0.881771
6.60008 0.821371 -1.61198
7.40299 -8.77508 -0.710793
-8.79079 4.45313 -1.95221
3.59866 3.90892 -1.5859
16.4767 -6.41237 -1.53196
-42.4907 11.4044 -0.910511
5.9532 2.07115 -1.59462
6.7685 2.02975 -1.57569
-15.4521 2.98959 -1.99897
-13.3948 -4.30726 -0.66726
2.10222 3.72014 -1.69244
4.65736 -6.13414 -1.64832
7.87958 -0.701166 -0.770911
8.68274 1.959 -1.45678
-7.69231 1.69642 -1.88257
-1.09653 -8.82181 -0.127063
2.71945 3.81647 -1.61563
-17.1837 -0.527695 0.605675
1.90915 -5.16649 -0.882754
-21.2367 -8.89372 0.863769
1.13611 5.76605 -1.69451
-28.7618 -34.0309 0.716691
-5.2792 -4.1817 -1.85449
-53.1629 18.6334 -0.194009
-1.88022 -10.4633 -0.895523
-18.7474 -2.62122 -0.0556709
1.37569 -4.43903 -1.02923
2.45584 3.89692 -1.63743
-4.21793 -4.20598 -1.8738
4.22813 -6.20332 -0.855011
5.84145 4.04312 -1.13842
1.70622 6.98863 -1.67448
5.0104 -3.56757 -1.23906
0.939386 9.80057 -1.6116
-1.69424 -5.91557 -1.70607
-4.06512 -4.10813 -1.86899
-3.93372 -3.85421 -1.88139
-10.8146 11.7074 -1.23455
8.45584 4.67142 -0.510468
-1.94711 6.59116 -1.64929
-2.56334 -6.63983 -1.0706
-11.0005 -2.52874 -1.79883
-3.04418 3.98289 -1.69088
-11.8192 7.44253 -2.05746
-11.7715 -10.845 -2.1328
7.86913 -0.30571 -1.32997
-1.38924 -5.06625 -1.7223
0.683239 -6.18921 0.204411
0.517093 -7.57937 0.390206
-0.552935 5.08976 -1.7051
5.65744 5.10867 -0.693494
4.69734 -3.99673 -1.24156
7.39966 0.168507 -1.65201
-5.75399 12.2508 -1.75173
4.1834 -2.86384 -1.73645
-2.29293 -11.3518 -0.637161
-0.512379 -7.48283 -0.026104
-6.19075 3.85588 -1.81588
-12.4807 -4.29944 -1.49832
-4.6161 -2.78654 -1.8528
-15.8032 3.55116 -1.66877
-1.8327 6.89914 -1.646
-7.98528 -0.219569 -1.91977
7.60487 0.847526 -1.58298
7.1455 8.01988 -0.919294
-9.53418 -0.791177 -1.96451
0.734161 -7.26174 0.417656
4.20079 1.29389 -1.70383
-6.8644 -17.1289 -1.9381
-3.5712 -3.03523 -1.85268
3.80261 -6.779 -0.839106
4.8243 -3.88112 -1.01172
-14.925 10.1111 -2.19528
-22.2746 -10.9164 -0.121546
-0.519196 9.49138 -1.61886
13.569 -0.00706022 0.185
-5.421 9.40401 -1.77451
-0.324557 15.7904 -1.6295
-22.3492 -52.0114 0.858191
-3.95735 4.81947 -1.6983
3.05504 2.79759 -1.67973
6.20339 5.20955 0.0944306
-5.83759 9.2302 -1.78548
3.62303 3.84968 -1.57796
-42.3812 11.5338 -1.16827
-13.6242 -4.00465 -0.940837
6.28914 4.0005 0.380455
-4.15065 -3.74867 -1.86746
8.24291 0.419694 -0.971008
3.28172 3.31757 -1.60934
6.73772 7.42373 -1.33871
5.07163 -1.44202 -1.66958
4.5253 7.50205 -1.49362
4.66648 -4.28907 -0.991267
-20.5537 -7.38648 0.724945
-14.1642 6.78016 -2.17197
7.77649 -0.512543 -1.31494
3.22596 30.4386 0.192211
0.572506 4.90152 -1.69514
1.1615 -3.81651 -1.72682
6.05172 -8.86471 -0.452021
2.86536 8.63493 -1.63234
3.40357 -5.47133 -1.24737
-6.0994 -3.03489 -1.81815
2.13562 12.3253 -1.56149
-2.05232 16.0502 -1.07485
-7.95479 -5.75782 -1.90241
-15.8439 -5.98046 -0.0209729
-3.57847 7.61022 -1.72693
-2.71283 -12.3789 0.51437
-3.83992 14.1589 -0.427759
3.28801 -4.709 -1.70118
-47.9001 -58.3349 0.544466
-22.1476 -51.8446 -0.161138
-4.47813 -7.95938 -1.0268
-10.4493 13.2881 -0.211598
-3.9647 -3.19154 -1.84633
-2.90765 6.6896 -1.68051
5.37475 1.38346 -1.65884
5.4205 -3.42699 -1.35429
8.06022 0.242142 -1.23501
-1.79662 -7.44465 -1.70718
1.16908 23.9343 -1.53695
0.794212 4.60741 -1.70564
6.03007 -1.98445 -1.65238
4.76042 3.34217 -1.51472
1.28205 -4.22792 0.204584
-3.47486 -5.66605 -1.47523
-11.9209 -5.30658 -1.33252
-2.75592 -12.3754 0.353397
7.42566 -3.25142 -1.67679
2.90123 -3.14507 -1.8157
-2.89237 -5.88201 -1.33731
2.37201 -3.92231 -1.71054
-10.8882 -2.22447 -1.44345
12.8927 0.867396 0.248005
-4.82759 9.34169 -1.79296
8.49759 27.0641 -1.37669
0.129046 -6.6334 -0.24562
4.08027 -2.47217 -1.73176
0.0955052 4.7996 -1.69692
5.53071 3.56178 -0.921712
6.19128 5.40846 0.293606
3.4955 -9.01736 -0.09528
-3.51623 -2.502 -1.84648
1.29916 -6.50073 0.000304527
0.911964 10.2474 -1.59905
3.80165 1.94124 -1.6915
-2.50909 30.2634 0.706491
-3.10795 -5.37466 -1.8728
-9.74754 3.06793 -2.02956
-18.1582 -2.53805 0.271159
7.97868 -0.0958461 -0.966993
-45.7423 20.3305 -1.67536
0.834823 -5.78945 -0.476189
4.34485 -3.00082 -1.76337
-17.6588 0.276022 -1.30076
-3.13661 -3.17697 -1.83963
13.4271 -9.66142 0.463934
4.92845 -1.52071 -1.68253
7.50232 -1.36809 -1.64073
2.47773 -5.049 -1.21329
1.59371 -3.69814 -1.74329
9.1433 26.8659 -1.37837
6.13894 1.04237 -1.62694
-5.96813 -7.77175 -1.98127
5.42452 -2.91664 -1.7007
-2.41726 -4.40281 -1.85341
2.22704 -4.96932 -1.03321
-13.8322 -4.08436 -0.689674
8.40239 51.9635 0.179851
8.42045 3.39342 -1.02721
-3.87411 6.8134 -1.73074
-16.6941 0.491875 0.375657
-2.92136 -6.82848 -1.81114
4.65518 3.77569 -1.51135
-25.232 -17.1972 -0.561702
0.187063 -5.07266 -1.69253
-6.77271 -0.723832 -1.8336
1.11429 4.55497 -1.71292
4.12509 5.46743 -1.52357
4.04141 -6.55839 -0.645502
-11.7889 -4.63178 -1.60475
-5.85696 -3.62858 -1.83621
14.0743 -11.3766 0.270271
1.42729 -6.74964 0.372506
-12.3102 -1.13003 -0.65682
-3.68401 -5.68657 -1.39009
-3.63335 2.35935 -1.74803
5.68011 5.14214 -1.16947
-8.58919 16.5223 -0.0295602
-6.36098 21.9056 0.46745
-3.40846 -3.68163 -1.86483
-22.674 -11.8911 -0.763821
4.98944 -3.58471 -1.34104
-1.38205 -5.36551 -1.71295
10.0682 3.01432 -0.0694893
-20.8167 -8.23111 -0.780474
46.8146 -18.223 0.134582
-12.5604 -0.696119 -2.02381
-5.22335 4.08118 -1.76082
-1.29869 -5.07875 -1.71736
9.19044 4.47819 -0.00869618
-8.31257 -7.70675 -1.97243
-18.9769 -4.14999 0.278552
9.88958 2.30358 -0.0597201
1.27 7.43614 -1.68064
-0.344256 -4.21895 -1.70212
-10.2599 13.3809 -0.420577
-13.8236 -3.66744 -1.6415
-9.38289 15.3978 0.0885263
-12.1729 -5.30519 -0.863498
5.47691 4.66289 -0.292828
2.58203 7.46057 -1.63351
-1.35534 -4.52053 -1.72598
5.29705 -3.92047 -0.27983
-17.5737 -14.8373 -2.33421
-1.47361 -9.56244 -0.213897
-16.0545 -8.57786 -0.913362
4.43216 2.15991 -1.65745
-14.9947 12.7738 -1.12122
18.8115 -6.42074 -1.50417
-4.51236 2.8726 -1.74795
-21.2355 9.22851 -1.75714
-4.94183 -4.67498 -1.86988
2.11037 -8.19897 -0.0572701
6.22185 4.39211 -0.17824
3.01228 14.5045 -1.52056
-1.78307 15.3277 -1.67392
5.94338 4.48821 0.231902
-1.09891 -8.63772 -1.65228
-5.48087 4.21267 -1.77553
-42.8936 9.47873 -2.24731
-4.50312 -15.515 0.203385
-9.52473 -5.01963 -1.97431
-23.7138 -13.9606 0.514802
-8.40303 -0.0231755 -1.93524
4.64972 1.41485 -1.67781
0.335598 4.282 -1.68871
2.89173 3.67038 -1.61086
5.81357 -8.50801 0.56271
-1.32661 4.09329 -1.67377
22.6441 -18.3536 -0.718004
-16.1222 -39.149 -2.35941
1.55412 7.38264 -1.68191
1.23159 7.0736 -1.66904
4.61815 -0.0938785 -1.68399
-21.7213 9.48692 -2.23759
14.7546 -7.81184 -1.64582
1.54692 -5.47955 -0.280111
6.12854 6.27841 -1.26858
-3.41439 3.56484 -1.71229
-0.773808 -8.07977 0.341808
-12.7052 -4.28382 -1.61934
5.04575 0.43704 -1.70001
-3.03911 3.84772 -1.70407
-21.9187 -10.2725 -0.857711
-1.02002 -8.72659 -1.42323
3.15585 -8.84046 -0.829256
-4.47365 13.6948 -0.415857
8.65864 -2.70418 -1.62723
4.14876 3.01576 -1.58683
-5.5429 -2.14509 -1.82077
2.07754 14.6295 -1.51572
-3.32956 13.7959 -0.997576
-6.94649 0.436208 -1.84639
-15.8716 3.67399 -1.96652
4.88957 -9.74045 -0.590343
-1.0982 -4.20665 -1.71754
-17.3431 -0.859158 0.264435
6.37734 5.30231 0.0334599
7.66521 -3.59401 -1.6876
0.471818 -6.07945 -0.314554
-16.54 13.4838 -0.971577
-0.353065 -6.95153 -1.29486
0.57404 5.07462 -1.70894
4.92554 -6.76615 -0.307757
-16.1615 1.46191 -1.47119
10.1422 1.32243 -0.804938
0.606886 -7.60136 0.427162
-11.2795 -3.02292 -2.05484
3.70764 -5.53501 -1.67248
-12.9204 -6.55906 -2.02823
0.365588 -6.1072 -0.281436
3.01947 -4.43219 -1.69034
-1.39453 -6.30466 -1.68283
5.34735 1.04248 -1.68793
-6.66694 -7.62458 -1.95716
-11.0348 11.8377 0.000737051
23.6392 -16.0774 -0.889256
4.6498 16.6799 -1.48617
-26.2315 -19.0699 0.572444
2.90195 -8.70309 -1.48924
1.51959 30.4453 -0.736457
-11.7901 1.48228 -1.94958
-2.99349 -5.83813 -1.4523
6.85261 7.70373 -0.683487
-18.1586 -1.48149 -0.271174
4.59402 24.3868 -1.48102
